VERSION .7
FIELDS x y z dynamic
SIZE 4 4 4 1
TYPE F F F I
COUNT 1 1 1 1
WIDTH 1587
HEIGHT 1
VIEWPOINT 0 0 0 1 0 0 0
POINTS 1587
DATA ascii
0.534503 0.199999 0.745234 1
0.58297 0.0889231 0.823274 1
0.167297 0.293418 1.78741 1
0.230731 0.175035 1.81078 1
0.117426 0.139247 1.9196 1
0.582747 -0.235727 1.67685 1
0.573417 -0.226477 1.63665 1
0.253343 -0.0352694 1.80828 1
0.196522 0.243418 1.80847 1
0.496548 -0.466262 1.70293 1
0.11522 0.401047 1.81771 1
0.0856273 0.833512 1.81899 1
0.154524 0.281958 1.82669 1
0.169998 0.261551 1.87244 1
0.209461 -0.0588401 1.90858 1
-0.117417 -0.518543 1.86015 1
-0.338431 0.543145 1.91845 1
0.482389 -0.362012 1.74388 1
0.0989022 0.413843 1.84297 1
-0.304152 0.569471 1.91517 1
0.144908 0.278498 1.8461 1
0.471615 -0.316679 1.71734 1
0.743163 -0.258419 0.866295 0
-0.298464 0.568413 1.907 1
-0.0831932 -0.443669 1.86946 1
0.174998 0.1135 1.88711 1
0.727677 -0.385282 0.916993 0
0.0564582 0.137467 2.01978 1
-0.399331 0.608852 1.9945 1
0.142918 0.136834 1.89951 1
0.164503 -0.0605762 1.89807 1
-0.0829541 0.402547 1.91169 1
-0.355734 0.597188 1.98521 1
0.130488 -0.111182 1.90593 1
0.159686 0.160807 1.9813 1
0.131731 0.222889 1.9299 1
0.160762 0.166769 1.97269 1
0.158932 0.115541 1.94355 1
0.109059 0.0878261 1.98873 1
-0.166583 0.497407 1.99882 1
-0.201596 0.428578 2.00623 1
0.127266 0.228492 1.98196 1
0.497022 0.228928 0.477748 1
0.504736 0.271178 0.752294 1
0.491939 0.223981 0.457437 1
0.494651 0.26246 0.626786 1
0.392164 0.520927 1.28192 1
0.68904 -0.144698 0.991839 1
0.60054 0.0193883 0.871348 1
0.504142 0.271931 0.750579 1
0.38574 -0.400622 1.69337 1
-0.199162 0.642851 1.81958 1
0.181057 0.299082 1.7553 1
0.181867 0.561369 1.73879 1
0.43582 -0.515924 1.64558 1
0.415115 -0.531445 1.65256 1
0.0549348 -0.703313 1.75022 1
-0.195624 0.644984 1.82384 1
0.626572 -0.236704 1.59459 1
0.0208972 0.579331 1.77304 1
-0.279638 0.662721 1.85416 1
0.22107 0.277402 1.75868 1
0.41621 -0.533799 1.65619 1
0.756759 -0.339542 0.902077 0
-0.0126638 -0.4149 1.77364 1
0.737988 -0.32825 0.873735 0
0.734585 -0.409075 0.975755 0
-0.0201908 -0.488844 1.78082 1
0.183438 0.316142 1.70538 1
-0.165235 0.788743 1.85023 1
-0.272727 0.676636 1.86776 1
-0.196793 0.656978 1.84238 1
0.581271 -0.229525 1.65422 1
0.479999 0.31699 0.719276 1
0.506722 0.269623 0.591393 1
0.535988 0.213718 0.6197 1
0.595174 0.0195344 0.874823 1
0.524792 0.216266 0.7538 1
0.598619 -0.0372768 1.00593 1
0.360751 0.298587 1.49975 1
0.375897 0.295526 1.49767 1
0.267804 0.47649 1.50565 1
0.377277 0.164681 1.5439 1
0.331157 0.115 1.5619 1
0.266715 0.384679 1.55373 1
0.462854 0.331726 1.30271 1
0.440165 0.290576 1.3268 1124073472
0.588412 0.0491052 0.841105 1
0.580823 0.0265576 0.839136 1
0.489297 0.298723 0.713844 1
0.583868 -0.136435 1.17155 1
0.624943 -0.181718 1.09399 1
0.585141 0.0652517 0.86903 1
0.636805 -0.190955 1.09787 1
0.576799 -0.146173 1.20993 1
0.533633 0.21013 0.610592 1
0.658126 0.0217794 0.704573 1
0.486842 0.452065 1.12235 1
0.591784 0.0660467 0.841388 1
0.599057 -0.0729401 0.957853 1
0.560917 0.175994 0.694097 1
0.530057 0.30218 0.921636 1
0.490529 0.222246 0.454372 1
0.619787 -0.0928494 0.939907 1
0.584735 0.0415845 1.04417 1
0.594847 -0.0323325 0.992582 1
0.588838 -0.0858996 1.09049 1
0.54614 0.177645 0.516555 1
0.602266 0.017819 0.866963 1
0.396199 0.550117 1.21994 1
0.608271 -0.146083 1.14223 1
0.167122 0.710983 1.61758 1
0.0913159 -0.32152 1.65045 1
0.0816497 -0.319869 1.65148 1
0.0271138 -0.288699 1.65785 1
0.379009 -0.374837 1.59886 1
0.464478 -0.139155 1.60437 1
0.225683 0.61926 1.62206 1
0.40933 -0.156963 1.62678 1
0.0864594 -0.327444 1.66676 1
0.122344 -0.457028 1.65686 1
0.0800825 -0.307164 1.66997 1
-0.0141992 -0.292512 1.67557 1
0.0685767 -0.330628 1.67158 1
0.0257297 -0.293189 1.67524 1
0.371073 -0.364107 1.61978 1
0.474084 -0.138346 1.66439 1
0.0937926 -0.367869 1.61508 1
0.367329 -0.136496 1.6033 1
0.0468314 -0.297044 1.63202 1
0.591242 0.0408945 0.873478 1
0.553476 0.187048 0.645684 1
0.698835 -0.151023 1.01151 1
0.379247 0.529141 1.34101 1
0.5889 0.110098 0.591075 0
0.490965 0.229065 0.453495 1
0.526386 0.204249 0.545424 0
0.0837309 -0.450986 1.70921 1
0.286025 0.109781 1.70906 1
0.635226 -0.232917 1.53321 1
0.0816065 -0.449805 1.7112 1
0.411141 -0.521306 1.61231 1
0.383152 -0.485236 1.63627 1
0.292475 0.13557 1.71189 1
0.0922741 -0.437719 1.71473 1
0.261075 -0.0165283 1.71872 1
0.185906 -0.731674 1.66403 1
0.268826 0.282835 1.80617 1
0.27419 0.118524 1.72053 1
0.0391508 -0.214423 1.73084 1
0.0543654 -0.235619 1.73074 1
-0.148248 0.760355 1.80055 1
0.190425 0.324178 1.7739 1
-0.149441 0.762134 1.80205 1
0.194224 0.324267 1.7299 1
-0.149677 0.758395 1.80214 1
0.292585 0.133295 1.72829 1
0.597935 -0.0305205 1.00209 1
0.59684 0.0651008 0.847884 1
0.584677 0.0993058 0.973351 1
0.578254 0.0868535 0.827612 1
0.52142 0.242653 0.775928 1
0.595548 0.0159757 0.860132 1
0.580436 0.0885012 0.856218 1
0.560703 -0.0304424 1.19574 1
0.667984 -0.134991 0.976152 1
0.594725 -0.11039 1.10184 1
0.535669 0.182826 0.491456 1
0.527247 0.221617 0.758336 1
0.630482 -0.120312 0.988722 1
0.376792 0.300991 1.51238 1
0.390014 0.102243 1.52727 1
0.610334 -0.208594 1.38098 1
0.545153 0.186821 0.805968 1
0.596799 0.270894 0.891055 1
0.541702 0.277957 0.931908 1
0.583417 -0.0895715 1.07367 1
0.487397 0.296204 0.704212 1
0.509102 0.261929 0.558414 1
0.49517 0.405027 1.14161 1
0.605387 -0.195808 1.07362 1
0.544185 0.18735 0.806959 1
0.59134 0.0594352 0.881328 1
0.57865 0.0979168 0.850821 1
0.619289 -0.0902332 0.94018 1
0.16187 0.572205 1.62534 1
0.33678 0.474187 1.38716 1
0.502156 -0.453348 1.77664 1
0.452789 0.252507 1.41058 1
0.0103208 0.728264 1.53437 1
0.353242 0.274507 1.49323 1
-1.494 0.669873 10.9953 0
-1.86484 0.343559 11.5365 0
-0.320827 0.556561 1.89542 1
0.0604905 0.337444 1.88364 1
-0.00408651 0.33175 1.99009 1
0.0480709 0.27096 2.0251 1
-0.136812 0.460773 1.88673 1
0.144313 0.269771 1.83912 1
0.00624512 -0.667949 1.70927 1
0.0553201 0.24088 1.9798 1
0.103537 0.197005 2.01289 1
-0.00983167 0.336774 1.95423 1
-0.0401371 0.316983 1.97444 1
-4.30109 -0.0966835 14.5195 0
-0.117919 -0.561318 1.87254 1
-0.237695 0.66831 1.75952 1
-1.07344 0.941794 10.577 0
-1.0385 0.547393 10.5106 0
0.12198 0.138695 1.93026 1
0.305649 0.132401 1.71427 1
0.307712 0.11362 1.64742 1
-0.0508157 -0.708069 1.86054 1
0.15693 0.554402 1.5856 1
0.123123 0.555061 1.62877 1
0.633461 -0.122267 0.994659 1
0.494426 0.226313 0.474636 1
0.544205 0.281297 0.939633 1
0.506052 0.224579 0.613402 1
0.51882 0.168499 0.587035 1
0.506168 0.226048 0.613634 1
0.160005 0.43334 0.924156 1
0.512372 0.203789 0.608377 1
-0.110058 0.519993 1.81965 1
0.407778 0.337935 1.41341 1
-0.188461 0.447204 1.94319 1
-0.148191 0.412588 1.95118 1
0.771632 -0.160772 0.890213 0
-0.0893862 -0.537922 1.92053 1
-1.81835 0.363625 11.2566 0
0.484877 0.281901 0.601907 1
-0.100251 0.48126 1.80344 1
0.122291 0.664511 1.48375 1
0.124882 0.146021 1.96251 1
-0.344784 0.571526 1.92687 1
0.128915 0.640541 1.49686 1
0.110016 0.633272 1.53377 1
0.134343 0.622578 1.57347 1
-0.0426037 0.444089 1.91679 1
-0.0560512 0.412022 1.90909 1
-0.268985 0.572313 1.86641 1
-0.32897 0.560787 1.91732 1
0.0615405 -0.649048 1.74788 1
0.104809 0.194697 2.0005 1
-0.00987336 0.329202 1.96182 1
-0.0359294 0.318434 2.02172 1
-2.07109 -0.423206 11.6402 0
-3.59693 0.00710439 13.8158 0
-0.00771852 0.659685 1.58648 1
-0.657601 0.684981 2.14743 1
-1.09186 0.962152 10.8058 0
-0.273539 0.473484 2.00855 1
0.484135 -0.273482 1.80995 1
0.0527432 -0.195675 1.67509 1
0.448333 -0.612047 1.75343 1
0.146523 -0.672182 1.60035 1
0.338396 -0.740237 1.83527 1
0.20159 -0.725126 1.69139 1
0.332283 0.469953 1.37685 1
0.353928 0.273368 1.50051 1
0.115752 0.13163 1.95419 1
0.240865 0.115248 1.72268 1
0.144778 0.267908 1.8408 1
0.0603669 0.333926 1.88011 1
0.424075 -0.652093 1.78281 1
-4.63009 2.68917 16.4326 0
0.13823 0.266476 1.86015 1
-0.222359 0.474806 1.91651 1
0.112016 -0.693653 1.65573 1
0.00155058 0.470371 1.84204 1
0.139964 -0.442454 1.64677 1
0.449709 0.193353 1.29779 1
-0.962043 0.520957 9.64965 0
-0.266826 0.466352 1.97786 1
-0.288177 0.499799 2.43481 1
0.489648 0.280533 0.628369 1
0.765455 -0.133513 0.866315 0
-0.252502 0.697622 1.81802 1
-0.303125 0.829141 2.0763 1
-0.0669203 -0.391394 1.80722 1
0.612332 -0.204022 1.285 1
-0.38599 0.581694 1.93824 1
-0.420106 0.583538 1.95656 1
-0.272917 0.5353 1.93113 1
-0.149969 0.43465 1.93832 1
-0.193006 0.453984 1.96202 1
-0.148276 0.414143 1.96183 1
-0.0613038 0.407822 1.91003 1
0.515703 0.189305 0.58594 1
-1.54737 -0.499637 9.27365 0
0.00807971 0.22439 2.05718 1
0.124434 0.148197 1.97535 1
0.0568768 -0.638949 1.71734 1
0.0476532 -0.711694 1.8196 1
-0.0111048 0.308366 2.01211 1
-2.00147 -0.422315 11.3327 0
-0.116607 -0.563724 1.8924 1
-2.08212 0.215081 11.5643 0
-1.11368 0.943334 11.001 0
0.481679 -0.270976 1.77629 1
0.456672 -0.0259442 1.50885 1
0.0407067 -0.300845 1.64519 1
0.157873 0.548756 1.56175 1
0.296604 0.515181 1.41485 1
0.0742729 0.611103 1.58797 1
0.357214 0.275728 1.50873 1
0.307065 0.138295 1.6998 1
0.241228 0.15878 1.76491 1
0.0487093 0.264901 1.9821 1
0.479949 0.324153 0.632729 1
-4.6579 -0.0584295 15.6349 0
0.108502 -0.691887 1.65264 1
0.44295 -0.615412 1.75589 1
-1.05297 0.557002 10.2928 0
-0.304067 0.518281 2.56635 1
0.0449571 0.267611 2.00738 1
0.164496 0.293856 1.79508 1
0.0768523 0.390318 1.85216 1
0.29879 0.184708 1.6708 1
0.308286 0.137472 1.68913 1
0.527697 -0.181393 1.57851 1
0.405849 0.474167 1.21882 1
-0.255943 0.693155 1.82563 1
-0.161111 0.437151 1.95317 1
-0.148496 0.425674 1.98508 1
0.241853 0.156683 1.7444 1
0.203484 0.127825 1.81196 1
0.489523 -0.275716 1.81213 1
0.155654 0.162396 1.87914 1
0.121341 0.145423 1.91745 1
-0.420104 0.591539 1.96435 1
-0.00516657 0.452186 1.81265 1
-0.0971254 0.483148 1.79939 1
-0.0156616 -0.406308 1.73753 1
0.429643 0.273535 1.32647 1
-0.463182 0.569907 2.02068 1
-0.562165 0.597976 2.07331 1
0.0505551 0.249672 2.01307 1
0.101117 0.193364 2.00851 1
-0.110573 -0.560206 1.89081 1
-0.0094572 0.31018 2.02641 1
-4.41972 -0.0484329 14.8359 0
-0.169851 0.567727 1.80369 1
-0.144504 0.46422 1.89714 1
-0.0322725 0.669299 1.6765 1
-1.26621 0.726672 10.3692 0
-3.1511 0.630734 14.3804 0
-1.10762 0.91295 10.8527 0
0.600934 -0.246998 1.84127 1
0.475862 -0.169804 1.6258 1
0.594364 -0.188101 1.0427 1
0.131294 0.631479 1.53091 1
0.43429 0.0376813 1.45505 1
0.352072 0.273708 1.49933 1
0.244922 0.114862 1.75608 1
0.759982 -0.423147 1.03277 0
-4.05399 2.41962 14.3964 0
-0.002978 -0.690002 1.75974 1
-1.9337 -0.416728 10.939 0
0.485714 0.231781 1.20055 1
-0.0034138 -0.687803 1.75953 1
0.184608 -0.713356 1.67962 1
-0.0458836 -0.410181 1.87229 1
-0.0228296 -0.415249 1.77033 1
0.120364 0.152084 1.95734 1
-0.0591292 -0.537945 1.79182 1
0.308152 0.138085 1.68487 1
-0.146266 0.409599 1.94879 1
-0.0384124 0.413091 1.90665 1
-0.0295378 -0.353464 1.76358 1
-0.265236 0.525474 1.90306 1
-0.236845 0.490011 1.9563 1
-0.428803 0.578601 1.96242 1
0.488845 -0.281454 1.78237 1
0.438519 -0.609877 1.74196 1
0.413833 -0.6438 1.76176 1
-0.191237 0.454385 1.96291 1
-3.28527 0.622587 14.861 0
0.520538 -0.176699 1.56887 1
0.12864 -0.0592888 1.99875 1
0.0124649 -0.292659 1.73494 1
0.0410111 -0.312772 1.67461 1
-1.71301 0.299396 10.494 0
0.0521763 0.236003 1.97895 1
0.0171061 0.172567 1.92849 1
0.238071 0.146665 1.76303 1
0.196089 0.133929 1.82286 1
0.0443293 -0.73668 1.85218 1
0.130266 0.225998 1.92844 1
-0.0911754 -0.521753 1.89335 1
-0.0950302 -0.533655 2.15435 1
-0.0433573 0.330443 1.98446 1
0.252933 -0.722542 1.77947 1
0.196069 -0.639241 1.59603 1
-4.80656 -0.0866568 16.0216 0
-0.111779 -0.55702 1.86453 1
-0.0332061 0.65151 1.66105 1
-1.69989 0.133816 10.1521 0
0.588106 -0.222402 1.53173 1
0.0537246 -0.660043 1.77303 1
0.653063 -0.161299 1.00967 1
0.451102 0.195321 1.30385 1
0.489542 0.283613 0.633414 1
0.135047 0.269598 1.90051 1
0.127823 0.622099 1.53486 1
-2.06991 -0.415911 11.8376 0
0.597169 -0.221187 1.53504 1
0.512045 -0.166572 1.55529 1
0.513363 -0.180525 1.5738 1
0.491997 -0.456753 1.78181 1
0.235903 0.157442 1.73656 1
0.49822 -0.243774 1.70376 1
0.485986 -0.248728 1.8023 1
-0.840984 0.436258 8.34321 0
-0.101002 -0.521907 1.91808 1
-0.0528149 -0.430947 1.9189 1
0.118748 0.153544 1.96136 1
0.445062 -0.603573 1.74943 1
0.0338609 -0.293845 1.65349 1
0.579739 -0.14067 1.26479 1
-0.419206 0.573817 1.93497 1
-1.13065 0.611713 9.8254 0
-0.0591755 0.341779 2.08431 1
-0.0616603 0.268065 1.98878 1
0.197016 0.130831 1.83824 1
0.602421 -0.247326 1.80579 1
-0.116151 -0.573749 1.92889 1
-0.484328 0.542895 2.00041 1
-1.09912 0.829956 10.8838 0
0.129796 -0.0553734 1.91249 1
-0.15568 0.463062 1.91684 1
-2.13959 -0.447417 12.317 0
-3.31724 -0.00548862 12.7585 0
-3.21648 0.610198 14.4173 0
0.447817 0.358544 1.26132 1
0.490939 -0.235475 1.66759 1
0.129084 0.258357 1.8536 1
0.578942 -0.142326 1.26297 1
-0.0707836 -0.637742 1.85417 1
-0.112015 -0.534414 1.94506 1
0.515584 -0.167724 1.56246 1
0.583565 -0.234526 1.70321 1
-0.0352205 -0.408272 1.82343 1
0.467322 -0.169094 1.62627 1
0.147991 -0.0674843 1.88342 1
-5.82289 -1.10783 11.6382 0
-11.4717 -2.37072 21.1804 0
0.242155 0.11707 1.74903 1
0.195055 0.130525 1.89303 1
-0.120526 -0.552322 1.87781 1
-0.0139977 -0.649437 1.75656 1
-0.282103 0.540294 1.94887 1
-0.481351 0.554383 2.04628 1
-0.0601784 0.282783 2.03264 1
0.605687 -0.226552 1.56188 1
0.431797 -0.570255 1.74269 1
0.442964 0.357857 1.2549 1
0.151345 0.540722 1.55499 1
0.121325 0.163548 1.98055 1
0.293668 0.123108 1.66449 1
0.0589574 0.256442 1.94851 1
0.300165 0.190348 1.67122 1
0.0117894 -0.482257 1.72105 1
0.0499958 -0.645681 1.7365 1
-1.10486 0.861918 11.0993 0
-1.40937 0.549395 10.4539 0
-0.26129 0.678196 1.79494 1
-0.159164 0.463885 1.92017 1
-9.47008 -1.04571 17.9773 0
-3.28898 -0.00640608 12.5025 0
-1.29017 0.392279 10.4439 0
-2.48569 0.620845 17.4683 0
0.595532 -0.183228 1.09625 1
-3.15433 0.653502 14.0591 0
-0.112659 0.3766 2.22729 1
-0.905034 0.639176 9.79679 0
-1.80941 0.510898 11.1157 0
-1.53528 0.337756 9.43405 0
-1.52466 0.512439 11.5035 0
-0.567269 0.571525 2.00215 1
-9.05939 -0.971232 17.211 0
-0.0583873 -0.567255 1.82277 1
-0.469796 0.550332 2.03914 1
-0.0467523 0.287214 2.10786 1
0.462051 -0.160269 1.59756 1
0.577879 -0.15492 1.276 1
0.0541834 0.12566 1.88532 1
0.201442 0.130776 1.89251 1
0.56384 -0.00216964 1.05874 1
0.0184397 -0.474987 1.69517 1
-0.410986 0.617772 1.96549 1
-0.0294495 -0.404002 1.82052 1
-2.07895 -0.425791 11.9933 0
-6.7058 -1.16415 13.2027 0
-10.9063 -2.23148 20.2712 0
0.0574601 0.280887 1.90789 1
0.61045 -0.15163 1.0978 1
0.625243 -0.178407 1.05101 1
-15.1056 -2.30554 26.4946 0
-0.267018 0.523163 1.91092 1
0.140451 -0.0580455 2.01978 1
0.456506 -0.386436 1.86397 1
0.583902 -0.184142 1.1233 1
0.105449 0.14068 1.8709 1
0.307497 0.130939 1.65387 1
0.116437 0.241427 1.89816 1
0.574764 -0.0085485 1.10859 1
-0.38395 0.561241 3.03013 1
-3.13514 -0.635768 17.8844 0
-8.73608 -0.992824 16.3428 0
-3.83875 -0.147685 13.9914 0
-2.86325 0.594981 12.684 0
0.44454 0.353815 1.25535 1
-2.89195 -0.138085 12.8913 0
-2.97467 -0.11628 11.0344 0
-0.392005 0.580386 3.22101 1
-1.34256 0.900294 9.50539 0
-1.21645 0.317068 9.66752 0
0.581168 -0.216923 1.68575 1
0.488384 -0.227609 1.66681 1
0.596657 -0.190931 1.15165 1
0.0586631 0.106208 1.92756 1
0.0868826 0.0285318 2.02257 1
0.125152 0.231585 1.89416 1
0.400788 0.140005 1.4443 1
0.0727053 -0.166953 1.88402 1
-2.40325 -0.587392 14.5201 0
-0.703219 -0.808462 6.66101 0
-11.6953 -1.71182 20.6935 0
-6.75621 -1.11825 12.9715 0
-0.0560508 -0.443647 1.97911 1
-2.54846 0.542168 11.2357 0
0.476277 0.30158 0.597083 1
0.442427 0.474908 1.06489 1
0.574366 0.0274528 1.0721 1
0.602473 -0.116728 1.02161 1
0.575706 -0.108309 1.12365 1
0.584647 -0.142746 1.07511 1
0.649419 -0.0652548 0.784463 1
0.470535 0.206106 1.20893 1
0.485893 0.400753 1.1589 1
0.57376 -0.143777 1.15106 1
0.21843 0.526784 1.26634 1
0.573231 0.0788992 0.776597 1
0.528191 0.26735 0.819797 1
0.576366 0.0783768 0.760574 1
0.52219 0.290779 0.823253 1
0.574011 0.0683016 0.793195 1
0.580112 0.0704419 0.759497 1
0.543711 0.224522 0.825451 1
0.533095 0.267253 0.829081 1
0.546333 0.222354 0.828441 1
0.562888 0.157642 0.821994 1
0.580967 0.0366612 0.801206 1
0.508184 0.330792 0.854817 1
0.523268 0.24022 0.578095 1
0.495306 0.259678 0.626747 1
0.465482 0.257113 0.490146 0
0.470803 0.257457 0.524523 1
0.481949 0.226601 0.51125 1
0.472889 0.255942 0.528044 1
0.483924 0.226095 0.514456 1
0.577951 -0.133594 1.14139 1
0.584491 -0.107745 1.14162 1
0.576109 -0.134416 1.14651 1
0.660774 -0.0958982 0.876118 1
0.364569 0.526468 1.22115 1
0.448232 0.403463 1.22772 1
0.572776 -0.143161 1.15415 1
0.447667 0.399764 1.22146 1
0.582681 -0.141459 1.15872 1
0.377775 0.558427 1.20606 1
0.444013 0.353206 1.24373 1
0.364899 0.532043 1.22908 1
0.407725 0.0485624 1.456 1
0.402669 0.043269 1.46017 1
0.518504 0.208072 0.517905 1
0.567087 -0.172336 1.3179 1
0.407182 0.0560158 1.43345 1
0.541711 -0.0801672 1.38734 1
0.574134 -0.172656 1.33231 1
0.150328 0.662458 1.45997 1
0.424742 0.105679 1.47921 1
0.0881737 0.698335 1.48223 1
0.146075 0.644585 1.47381 1
0.512185 0.243329 0.540562 1
0.131769 0.670933 1.48324 1
0.423649 0.0943255 1.48032 1
0.413798 0.101371 1.48384 1
0.425576 0.108273 1.46658 1
0.512429 0.241668 0.538813 1
0.418421 0.101345 1.48534 1
0.409473 0.0362654 1.42935 1
0.414778 0.105526 1.48969 1
0.0865716 0.710448 1.50796 1
0.144018 0.634458 1.50168 1
0.412883 0.105268 1.49974 1
0.145631 0.634702 1.50542 1
0.514193 0.208772 0.513198 1
0.507232 0.21798 0.61508 1
0.153601 -0.367666 1.5759 1
0.376616 0.289252 1.54254 1
0.0497122 -0.431211 1.56796 1
0.360871 0.157781 1.58599 1
0.356675 0.156337 1.54612 1
0.0912306 0.62719 1.5661 1
0.336557 0.258758 1.55225 1
0.0717222 0.606737 1.56981 1
0.092289 -0.257382 1.61866 1
0.13597 -0.360177 1.58949 1
0.493978 -0.154336 1.50551 1
0.359979 0.158603 1.56721 1
0.492112 0.225559 0.471329 1
0.496899 0.223671 0.476206 1
0.48512 0.304338 0.676688 1
0.482177 0.293803 0.696144 1
0.557847 0.105303 0.721923 1
0.493447 0.285349 0.661452 1
0.561793 0.0915341 0.703186 1
0.494084 0.285727 0.662346 1
0.562393 0.0954756 0.70371 1
0.486799 0.30643 0.680075 1
0.562074 0.0903076 0.728301 1
0.482397 0.304091 0.675224 1
0.559354 0.106342 0.737066 1
-0.310926 0.524724 1.02831 1
0.519761 0.239922 0.572407 1
0.496158 0.280594 0.693079 1
0.464791 0.392052 1.20458 1
0.662887 -0.104474 0.894299 1
0.582005 -0.135218 1.15511 1
0.582009 -0.143869 1.14505 1
0.513169 0.22101 0.524377 1
0.580958 -0.200484 1.15878 1
0.517936 0.20882 0.517145 1
0.435694 0.198416 1.29582 1
0.50704 0.259488 0.5508 1
0.582577 -0.202708 1.16628 1
0.509641 -0.191603 1.27832 1
0.614017 -0.210252 1.119 1
0.0645477 -0.298315 1.63686 1
0.611388 -0.220982 1.46858 1
0.392391 -0.152048 1.60409 1
0.371029 -0.131548 1.61127 1
0.122356 0.176165 0.554212 1
0.114654 0.0287098 0.298197 1
0.510801 0.243092 0.669603 1
0.115406 0.126145 0.345546 1
0.531391 0.140583 0.556709 0
0.512781 0.242544 0.672232 1
0.470049 0.257246 0.523527 1
0.472373 0.259535 0.528811 1
0.503047 0.206392 0.56763 1
0.481738 0.225232 0.510093 1
0.478586 0.302677 0.600527 1
0.478684 0.304056 0.60179 1
0.499876 0.225248 0.579179 1
0.516865 0.182783 0.598119 1
0.483747 0.304774 0.63504 1
0.524997 0.169422 0.593055 1
0.557091 0.120902 0.681048 1
0.571197 0.0866451 0.723788 1
0.562883 0.108615 0.734118 1
0.567071 0.112479 0.759028 1
0.579086 0.0507685 0.783941 1
0.57589 0.0728783 0.78347 1
0.577546 0.0570994 0.78396 1
0.589217 0.0463109 0.803872 1
0.530261 0.379424 0.8677 1
0.582081 0.0386838 0.976023 1
0.589382 -0.0604547 0.927114 1
0.595011 -0.0364646 0.936294 1
0.532 0.251738 1.01982 1
0.603518 -0.0638727 0.934453 1
0.60404 -0.0774998 0.929816 1
0.600135 -0.0599015 0.952005 1
0.604824 -0.0764608 0.929583 1
0.492049 0.28035 1.08418 1
0.628947 -0.111119 0.903137 1
0.618486 -0.134487 1.00753 1
0.616309 -0.128419 0.983605 1
0.580979 -0.12273 1.0938 1
0.595777 -0.139847 1.075 1
0.60319 -0.142592 1.07589 1
0.603295 -0.142915 1.08236 1
0.452047 0.221881 1.24242 1
0.47277 0.390515 1.16711 1
0.482301 0.212599 1.2326 1
0.466994 0.416449 1.17374 1
0.606807 -0.164815 1.1038 1
0.450032 0.400981 1.20616 1
0.609608 -0.1669 1.11989 1
0.613981 -0.153581 1.10817 1
0.623294 -0.174928 1.07611 1
0.454239 0.405666 1.2449 1
0.607012 -0.16557 1.10369 1
0.661967 -0.167364 1.03302 1
0.431596 0.279507 1.3184 1
0.584542 -0.183088 1.25136 1
0.109416 0.631116 1.53898 1
0.369336 0.168399 1.56286 1
0.355163 0.168148 1.58637 1
0.120936 0.511387 1.695 1
0.482098 -0.176965 1.63926 1
0.121251 0.51229 1.7158 1
0.125249 0.523127 1.75772 1
0.0500978 -0.651354 1.75354 1
0.162627 -0.070183 1.82009 1
0.164527 -0.0707552 1.79337 1
0.0772872 0.535029 1.7989 1
-0.413206 0.587923 1.92738 1
0.23174 -0.734044 1.75306 1
-0.0984068 0.48329 1.804 1
-0.0959524 -0.564616 1.85795 1
-0.0375988 0.448072 1.86962 1
0.608505 -0.225696 1.612 1
0.157619 0.311354 1.81036 1
-0.00603259 0.452542 1.83256 1
-0.0591044 0.565109 1.82713 1
-0.32992 0.572161 1.90734 1
-0.0436432 -0.398489 1.85286 1
0.734974 -0.384826 0.92914 0
0.617816 -0.255158 1.855 1
0.747842 -0.409371 0.978118 0
0.463035 -0.42857 1.69871 1
-0.0889963 -0.549894 1.97666 1
-0.224583 0.479117 1.92043 1
-0.263684 0.499474 1.96199 1
-0.249999 0.501133 1.92893 1
0.780788 -0.163862 0.906223 0
0.16185 0.156324 1.9232 1
0.129216 0.229446 1.95964 1
-0.563246 0.621263 2.16753 1
-0.0479716 0.326825 2.00643 1
-1.25509 -0.279331 2.70038 0
0.537655 -0.327225 1.8947 1
-0.0930541 0.34791 2.06233 1
-5.76861 -1.0926 11.5989 0
-6.06187 -1.15833 12.0789 0
0.566397 0.0890489 0.715213 1
0.565654 0.0894429 0.733016 1
0.512088 0.315141 0.761887 1
0.568764 0.0871763 0.735027 1
0.568295 0.0910436 0.741476 1
0.570098 0.089209 0.746492 1
0.547936 0.223767 0.834124 1
0.58248 0.0402853 0.799106 1
0.585014 0.025948 0.797786 1
0.543042 0.250273 0.837569 1
0.567443 0.158302 0.831663 1
0.595095 0.0244083 0.694803 1
0.59342 0.0498224 0.819798 1
0.567844 0.132791 0.901522 1
0.575978 0.111346 0.910674 1
0.576212 0.111945 0.911013 1
0.565768 0.319148 0.761465 1
0.56619 0.320083 0.761909 1
0.598454 -0.0463514 0.90708 1
0.542606 0.202771 0.64608 1
0.512546 0.200215 0.605643 1
0.51823 0.186121 0.600758 1
0.516432 0.187227 0.596273 1
0.516434 0.208966 0.516663 0
0.524945 0.172406 0.592823 1
0.517064 0.184943 0.598024 1
0.52438 0.169214 0.595063 1
0.491054 0.28539 0.63686 1
0.597326 -0.0784017 0.954968 1
0.515945 0.230254 0.534636 1
0.59037 0.0484549 0.860524 1
0.4961 0.275517 0.696111 1
0.481943 0.293288 0.698491 1
0.530609 0.174885 0.663885 1
0.485079 0.294934 0.705032 1
0.529415 0.206159 0.549349 1
0.476492 0.317476 0.710698 1
0.477216 0.313726 0.713279 1
0.510482 0.260738 0.679345 1
0.519614 0.242233 0.574329 1
0.536365 0.160998 0.658023 1
0.49762 0.29068 0.666746 1
0.510556 0.263391 0.680802 1
0.576821 0.0974887 0.846712 1
0.527135 0.222791 0.759824 1
0.59187 0.0635134 0.843197 1
0.514405 0.242517 0.67386 1
0.547646 0.134796 0.680751 1
0.543479 0.154679 0.692007 1
0.526587 0.203016 0.468391 1
0.495366 0.21866 0.572478 1
-0.234475 0.00753257 0.713624 0
0.198897 0.05091 0.176725 0
0.58112 0.0871155 0.836439 1
0.50437 0.271024 0.749851 1
0.57236 0.0884647 0.72486 1
0.47451 0.240294 0.513386 1
0.573919 0.0506124 0.582313 0
0.497064 0.22245 0.576395 1
0.5651 0.106958 0.752235 1
0.577108 0.0748269 0.787872 1
0.465069 0.239428 0.476766 0
0.548878 0.188655 0.635255 1
0.581239 0.0538523 0.782129 1
0.0894836 0.204124 0.560418 1
0.581898 0.0508751 0.780796 1
0.48518 0.260689 0.588184 1
0.58231 0.0524363 0.786074 1
0.583863 0.0732912 0.767368 1
0.580114 0.0386961 0.817048 1
0.587344 -0.0440264 0.895744 1
0.477105 0.240256 0.520374 1
0.491688 0.241817 0.582073 1
0.582244 -0.0581591 0.914314 1
0.549164 0.154511 0.998939 1
0.496121 0.294484 0.762622 1
0.519789 0.248949 0.999409 1
0.486434 0.259514 0.590025 1
0.512824 0.252249 0.73831 1
0.597431 -0.0446502 0.94238 1
0.594748 -0.0656228 0.937996 1
0.598157 -0.0436175 0.950126 1
0.5942 -0.0396482 0.937877 1
0.474164 0.240733 0.512271 1
0.490579 0.242366 0.580583 1
0.527099 0.225924 0.762727 1
0.583897 0.0730397 0.865899 1
0.58649 0.114075 0.712549 1
0.526892 0.203584 0.469037 1
0.470728 0.426622 1.03538 1
0.474673 0.427212 1.02359 1
0.513815 0.254925 0.744102 1
0.50048 0.20337 0.565386 1
0.496387 0.291293 0.76182 1
0.474504 0.236199 0.516952 1
0.465107 0.242555 0.4797 0
0.613828 -0.133148 1.00179 1
0.479855 0.223203 0.510295 1
0.5036 0.278961 1.11384 1
0.479785 0.223795 0.508341 1
0.56316 0.139005 0.803311 1
0.47646 0.23753 0.520108 1
0.494478 0.28925 0.754353 1
0.512025 0.248884 0.735851 1
0.604197 -0.123084 1.03289 1
0.485753 0.258678 0.591381 1
0.615923 -0.139408 1.00331 1
0.610113 -0.117957 1.03768 1
0.651924 -0.0642309 0.789379 1
0.583102 -0.122908 1.09792 1
0.568107 -0.146942 1.13653 1
0.655513 -0.17452 1.04521 1
0.659133 -0.0883891 0.854976 1
0.663749 -0.0875386 0.854885 1
0.629053 -0.178329 1.05826 1
0.473009 0.393557 1.18694 1
0.662456 -0.0879799 0.852735 1
0.605716 -0.193037 1.09173 1
0.663529 -0.0867475 0.85194 1
0.459715 0.411797 1.20604 1
0.590544 -0.182064 1.13126 1
0.659532 -0.130589 0.964766 1
0.614436 -0.167332 1.12422 1
0.624588 -0.177668 1.05729 1
0.673118 -0.137603 0.962105 1
0.631119 -0.179821 1.0679 1
0.656727 -0.167907 1.02664 1
0.67295 -0.1368 0.959958 1
0.660338 -0.180363 1.06238 1
0.679027 -0.124824 0.964802 1
0.506476 0.0380068 1.34932 1
0.678457 -0.167922 1.04266 1
0.32705 0.491505 1.36988 1
0.337578 0.26259 1.46269 1
0.424589 0.363189 1.36287 1
0.571059 -0.175313 1.35664 1
0.685589 -0.19433 1.10309 1
0.138105 0.678758 1.49564 1
0.0742858 0.610277 1.58647 1
0.327217 0.123469 1.63247 1
-0.00734433 -0.409767 1.73559 1
0.471456 -0.171258 1.62104 1
0.708958 -0.312381 0.844177 0
-0.795456 0.743829 2.10195 1
-0.843268 0.776066 2.20228 1
0.299942 0.127224 1.70965 1
0.710697 -0.346956 0.868478 0
0.0517742 -0.653176 1.75723 1
0.701924 -0.350582 0.855848 0
0.0635538 0.106269 1.86332 1
0.76018 -0.169161 0.876331 0
0.152509 0.282931 1.81667 1
0.72333 -0.404513 0.988847 0
0.0214874 -0.296056 1.7186 1
0.101229 0.411994 1.83177 1
-0.384563 0.578021 1.95519 1
-0.120599 0.538855 1.87867 1
-0.137437 0.461117 1.88281 1
0.492802 -0.344092 1.83698 1
-0.38847 0.574393 1.95329 1
0.735278 -0.386606 0.929699 0
-0.555785 0.601704 2.07501 1
0.616882 -0.243258 1.72654 1
0.469138 -0.355776 1.80462 1
-0.284248 0.533647 1.92145 1
0.116114 -0.0313102 2.02729 1
0.786891 -0.168878 0.919753 0
0.0214108 0.162669 1.91235 1
0.0657339 0.0594105 2.27929 1
-0.048679 0.343786 1.99706 1
-0.278705 0.483864 2.02006 1
-0.325486 0.542553 2.74015 1
0.692091 -0.156464 1.02309 1
0.685805 -0.177892 1.042 1
0.0997699 -0.407256 1.59274 1
0.273524 0.396433 1.57604 1
0.521614 -0.158027 1.5389 1
0.298438 0.200063 1.65521 1
0.0127432 -0.394077 1.65391 1
0.323021 0.206903 1.63733 1
-0.191331 0.691278 1.71263 1
0.472354 -0.167606 1.61902 1
0.346459 0.26066 1.61967 1
0.509794 -0.160541 1.53244 1
0.0104419 -0.398281 1.6615 1
0.322628 0.145745 1.61605 1
0.321202 0.202712 1.63914 1
0.586734 -0.213724 1.5032 1
0.307716 0.190606 1.67201 1
0.320099 0.198951 1.64543 1
0.478865 -0.166312 1.63766 1
0.322396 0.197945 1.63381 1
-0.0061715 -0.339297 1.71049 1
0.0411414 -0.721361 1.72888 1
0.530122 -0.186265 1.57642 1
0.52483 -0.186587 1.58023 1
0.166018 -0.722691 1.63002 1
0.282211 0.113944 1.69732 1
0.333763 0.130924 1.67211 1
0.0294194 -0.365305 1.69616 1
0.258478 -0.00827634 1.75403 1
0.473627 -0.160725 1.63063 1
0.0435634 -0.710951 1.69098 1
-0.160661 0.545479 1.73776 1
-0.00660604 -0.397817 1.70988 1
-0.231736 0.613791 1.84852 1
0.476997 -0.237319 1.71487 1
0.49302 -0.22869 1.71008 1
0.742146 -0.425012 1.0576 0
-0.278937 0.680461 1.87545 1
0.0204071 0.586567 1.79675 1
0.582079 -0.227211 1.66173 1
-0.231569 0.617723 1.85477 1
0.38461 -0.563656 1.68815 1
-0.0184887 0.490725 1.80188 1
-0.230853 0.618248 1.85551 1
-0.232111 0.617597 1.85679 1
0.106729 0.549494 1.78502 1
-0.287223 0.632783 1.87632 1
-0.0205274 -0.419111 1.79698 1
0.207156 -0.745995 1.72445 1
0.742086 -0.329377 0.877497 0
0.199268 0.376234 1.78436 1
-0.0548059 -0.421642 1.80358 1
-0.21391 0.664267 1.86323 1
0.0684205 0.615323 1.79577 1
0.104189 0.454714 1.79377 1
0.018269 0.587309 1.80557 1
-0.30152 0.651605 1.89044 1
0.476718 0.392999 1.19596 1
0.483939 0.400623 1.14152 1
0.575709 -0.115758 1.12815 1
0.489862 0.242004 1.19715 1
0.484437 0.403051 1.14706 1
0.58197 -0.0949498 1.12729 1
0.483824 0.403962 1.14851 1
0.575371 -0.174129 1.12015 1
0.484456 0.402274 1.14902 1
0.581089 -0.106088 1.13553 1
0.583236 -0.0982707 1.13539 1
0.53665 0.211251 0.615691 1
0.501932 0.203503 0.568267 1
0.619634 -0.195124 1.14884 1
0.620063 -0.172106 1.16855 1
-0.0439886 0.720931 1.62044 1
0.334985 0.240189 1.57237 1
0.338603 0.247315 1.58318 1
0.331911 0.245973 1.58015 1
0.340633 0.248345 1.58081 1
0.262707 0.397638 1.58285 1
0.321255 0.230669 1.59018 1
0.588676 -0.221943 1.5134 1
0.231863 0.443687 1.59856 1
0.334253 0.243306 1.60022 1
0.496949 -0.139457 1.55122 1
0.516189 -0.163295 1.53913 1
-0.208674 0.601393 1.85533 1
0.74446 -0.327895 0.881618 0
-0.194656 0.636508 1.85752 1
0.7354 -0.366295 0.890386 0
-0.283019 0.639017 1.88429 1
-0.29432 0.67247 1.89475 1
0.739903 -0.333371 0.868774 0
-0.234222 0.612949 1.86623 1
-0.0196846 -0.428016 1.80686 1
0.197923 0.372857 1.79291 1
-0.23525 0.617923 1.86986 1
-0.303206 0.657905 1.89883 1
0.0272039 0.615304 1.81258 1
0.192707 0.156022 1.83229 1
-0.168067 0.554093 1.84648 1
0.0374022 -0.239952 1.80733 1
-0.237775 0.610027 1.87205 1
-0.238078 0.62241 1.87446 1
-0.304711 0.655305 1.90112 1
-0.286373 0.630276 1.89307 1
0.291428 0.130703 1.80177 1
0.178319 0.322653 1.80841 1
-0.196166 0.616295 1.86911 1
0.260768 0.00500311 1.75977 1
0.0826513 0.516363 1.81385 1
-0.293069 0.647968 1.90458 1
0.501651 0.213025 0.462984 1
0.593658 -0.104213 1.11247 1
0.602061 -0.0733683 0.962844 1
0.516263 0.23823 0.763673 1
0.593483 0.0637928 0.847436 1
0.598828 -0.0310777 1.00619 1
0.4981 0.224869 0.577283 1
0.594369 0.0295809 0.882828 1
0.357304 0.297251 1.52822 1
0.100335 -0.397238 1.55851 1
0.126708 -0.232173 1.56396 1
0.598248 -0.0834778 0.958732 1
0.544128 0.183414 0.80629 1
0.575484 0.100174 0.830173 1
0.583745 -0.106944 1.12093 1
0.498122 0.43057 1.12046 1
0.515265 0.24175 0.758538 1
0.494826 0.4058 1.14546 1
0.535667 0.224789 0.778872 1
0.492751 0.241781 0.586577 1
0.492951 0.243068 0.587884 1
0.574166 0.139494 0.694438 1
0.551254 0.187219 0.701177 1
0.575596 0.0961707 0.82482 1
0.501049 0.284193 0.70394 1
0.506027 0.258906 0.549254 1
0.146279 -0.142751 1.89227 1
-0.0246013 0.358494 2.04003 1
-0.34675 0.479036 2.09114 1
-0.0654756 0.339398 2.275 1
-1.97977 -0.447609 4.18529 0
-0.243259 -0.439013 4.3395 0
-0.280741 -0.492893 5.17829 0
-0.325646 -0.472149 5.11009 0
0.587455 -0.0875813 1.08814 1
0.511084 0.265595 0.691809 1
0.581036 0.0356614 0.839092 1
0.51581 0.266049 0.789151 1
0.596135 0.0169197 0.861553 1
0.580361 0.0865136 0.834413 1
0.519695 0.244141 0.776097 1
0.559378 0.138417 0.7952 1
0.509287 0.273404 0.764973 1
0.540108 0.183271 0.619646 1
0.599694 -0.0469339 0.964649 1
0.489365 0.300847 0.716585 1
0.611378 -0.204517 1.22481 1
0.45804 0.41472 1.27673 1
0.492719 0.244152 0.585904 1
0.486392 0.278692 0.623709 1
0.494824 0.244466 0.591562 1
0.498155 0.238214 0.613595 1
0.261883 0.119321 1.70146 1
-0.211629 0.718593 1.77955 1
0.479903 -0.173781 1.6225 1
0.591296 -0.219272 1.55268 1
0.481663 -0.176596 1.63072 1
0.246208 0.129569 1.70923 1
-0.0328093 -0.518252 1.76927 1
0.25677 -0.0258685 1.7371 1
0.196955 0.321532 1.72282 1
0.119163 0.507638 1.72123 1
-0.164573 0.555557 1.76979 1
0.26792 -0.706532 1.64384 1
-0.25585 0.694668 1.81837 1
0.211497 0.278837 1.73456 1
0.209547 0.25452 1.75019 1
-0.251578 0.673938 1.78479 1
0.472877 -0.462745 1.72934 1
0.320865 0.151389 1.71615 1
0.327603 0.153025 1.71833 1
0.203482 0.254084 1.74194 1
0.176506 -0.0458628 1.75292 1
0.249481 0.125551 1.77423 1
0.202911 0.244339 1.72178 1
-0.0546027 -0.526896 1.76961 1
0.471703 -0.450227 1.61807 1
0.709225 -0.325063 0.852602 0
0.564189 -0.229971 1.67255 1
0.193852 0.23005 1.75242 1
-0.181078 0.614104 1.81046 1
0.437317 -0.613193 1.66305 1
0.200543 0.189391 1.8201 1
0.477141 -0.453776 1.65039 1
0.585823 -0.227986 1.69766 1
0.186547 0.31359 1.79002 1
0.171335 0.279131 1.78043 1
-0.108382 0.519008 1.80779 1
0.194741 0.188461 1.83144 1
0.16968 0.284043 1.78463 1
0.16408 0.278432 1.82324 1
0.484518 -0.455552 1.67474 1
0.150086 0.221499 1.78951 1
0.0568629 0.137664 2.15092 1
0.194774 0.225335 1.76451 1
0.490097 0.299854 0.714947 1
0.567103 -0.0928864 1.09929 1
0.609104 -0.0853763 0.965435 1
0.434448 0.520263 1.1214 1
0.518584 0.24015 0.574452 1
0.357939 0.283601 1.48913 1
0.358487 0.288708 1.52969 1
0.385426 0.300842 1.48305 1
0.579033 0.088645 0.831209 1
0.560234 0.139029 0.79993 1
0.588525 -0.0824001 1.09425 1
0.584847 -0.140608 1.16604 1
0.67983 -0.119638 0.927576 1
0.525014 0.221693 0.75363 1
0.532679 0.21326 0.611275 1
0.58705 0.0540055 0.851792 1
0.603604 -0.102972 1.04892 1
0.607478 -0.081471 0.981805 1
0.578975 0.0967976 0.85749 1
0.579911 0.0838839 0.833352 1
0.588739 -0.086664 1.09345 1
0.368918 -0.128589 1.60281 1
0.115515 -0.244806 1.62766 1
-1.36111 1.07127 2.28068 1
0.53414 0.202027 0.740709 1
0.430943 0.51601 1.10638 1
0.494701 0.224014 0.471483 1
0.404376 0.316853 0.644594 1
0.496806 0.406039 1.15699 1
0.252587 0.410035 1.59697 1
0.251852 0.41125 1.59806 1
0.339488 0.108036 1.60567 1
0.588832 -0.0867898 1.09212 1
0.58383 0.0894236 0.860463 1
0.583553 0.0706429 0.868215 1
0.494898 0.401466 1.18525 1
0.532061 0.159095 1.22069 1
0.499637 0.280753 0.69851 1
0.596806 0.0189796 0.860659 1
0.592576 0.0269505 0.864795 1
0.452805 0.0240206 1.46262 1
0.621837 -0.21465 1.31049 1
0.530212 0.223118 0.768364 1
0.587318 0.0552853 0.86406 1
0.463778 0.104157 1.33425 1
0.589682 0.0194302 0.866435 1
-0.285526 0.641018 1.82501 1
0.041385 -0.226376 1.74014 1
0.105614 -0.720229 1.70956 1
0.379667 -0.374225 1.68275 1
0.259944 0.246027 1.72956 1
0.636057 -0.234762 1.55925 1
0.469165 -0.170304 1.68358 1
0.396012 -0.483246 1.65674 1
0.394519 -0.488724 1.6562 1
-0.260894 0.674751 1.83008 1
0.41359 -0.527451 1.63659 1
0.780387 -0.186137 1.30316 1
-0.00179884 -0.448104 1.75244 1
0.250774 0.258232 1.73967 1
-0.164024 0.762576 1.82038 1
0.738736 -0.335303 0.863281 0
0.255217 0.254202 1.74176 1
0.226756 0.298977 1.74265 1
0.184178 -0.148456 1.7511 1
0.0423057 -0.722627 1.74422 1
-0.0041289 -0.7009 1.75943 1
0.000264056 -0.445606 1.75908 1
0.380799 0.545665 1.25035 1
0.614676 -0.170305 1.14788 1
0.366504 -0.361369 1.55466 1
0.239824 0.682055 1.55168 1
0.686408 0.0971428 0.625465 0
0.341141 0.504663 1.37022 1
0.702473 0.0392992 0.743588 1
0.464413 -0.279874 0.671093 0
0.591837 -0.105699 1.09234 1
0.642597 -0.0153993 0.818037 1
0.600511 -0.0404721 1.01075 1
0.615011 -0.149243 1.05725 1
0.561517 0.136862 0.801529 1
0.464094 0.489797 0.985637 1
0.349473 0.557331 1.29221 1
0.329725 0.536038 1.29344 1
0.5914 -0.136795 1.19245 1
0.455476 0.380593 1.21588 1
0.334069 0.546374 1.31367 1
0.422385 0.257524 1.35329 1
0.644198 -0.159295 0.98819 1
0.407995 0.228643 1.39891 1
0.410393 0.240423 1.40624 1
0.487789 0.264409 0.594545 1
0.50974 0.200155 0.602094 1
0.504854 0.214172 0.608967 1
0.141768 0.636429 1.51025 1
0.369499 0.285957 1.49354 1
0.373482 0.287334 1.52526 1
0.37229 0.0873416 1.49632 1
0.240234 0.604629 1.49435 1
0.478384 0.318605 0.620187 0
0.359303 0.0808638 1.51796 1
0.14101 -0.35949 1.58954 1
0.578286 0.000328178 0.982248 1
0.446757 0.477835 1.01608 1
0.612974 -0.084328 0.893257 1
0.613403 -0.0857067 0.893842 1
0.60854 -0.0789395 0.927093 1
0.541731 0.0794658 1.06983 1
0.536045 0.25465 1.03037 1
0.618154 -0.0852451 0.903629 1
0.504321 0.292029 1.06811 1
0.441387 0.471841 1.06101 1
0.621834 -0.103849 0.883827 1
0.0333579 -0.0200252 0.324894 1
0.0337361 -0.0188411 0.324164 1
0.17037 0.0723881 0.18535 1
0.541856 0.114674 0.566601 1
0.277175 0.155872 0.278285 0
0.543698 0.133159 0.677516 1
0.203232 0.0464596 0.170714 0
0.553643 0.117978 0.673676 1
0.275605 0.198511 0.4576 1
0.555466 0.119858 0.678988 1
0.166607 0.328456 0.724315 1
0.556145 0.089248 0.718164 1
0.495423 0.265699 0.627042 1
0.512443 0.204368 0.610527 1
0.512148 0.205887 0.609952 1
0.496456 0.262405 0.629232 1
0.489074 0.285643 0.632504 1
0.513671 0.203774 0.608428 1
0.511833 0.219842 0.623304 1
0.50502 0.271461 0.752951 1
0.474404 0.39561 1.24526 1
0.46423 0.404597 1.23396 1
0.555908 0.154874 0.81857 1
0.535398 0.191107 0.591958 1
0.570492 0.134163 0.556041 0
-1.38148 1.08308 2.30455 1
0.68176 -0.107376 0.905364 1
0.372144 0.324289 1.46571 1
0.54801 0.236961 0.889067 1
0.588371 -0.10266 1.0962 1
0.607064 -0.0962932 1.01962 1
0.611586 -0.20069 1.08164 1
0.457257 0.25932 1.24056 1
0.600537 0.0162116 0.860482 1
0.509385 0.264685 0.687389 1
0.477918 0.313634 0.715356 1
0.678923 -0.065539 0.828376 1
0.614486 -0.211636 1.4014 1
0.379478 0.167518 1.55909 1
0.373214 0.521344 1.31472 1
0.576017 -0.138958 1.20424 1
0.646157 -0.18462 1.1135 1
0.452787 0.0252928 1.46672 1
0.449582 0.0349747 1.46942 1
0.58008 0.0972041 0.861505 1
0.350843 0.456985 1.43978 1
0.609143 -0.0858602 0.960819 1
0.309406 0.335322 0.696902 1
0.602633 -0.0438728 1.00398 1
0.681078 0.0591401 0.677693 0
0.478272 0.13896 1.31611 1
0.610331 -0.0979982 1.03134 1
0.617391 -0.0903994 0.936158 1
0.725741 0.0610008 0.723754 0
0.0590558 -0.626794 1.63023 1
0.291992 0.0871071 1.62803 1
0.275461 0.287501 1.62721 1
0.330724 0.141927 1.62804 1
0.0763832 -0.316677 1.64391 1
0.16304 -0.418468 1.62954 1
0.144782 -0.387761 1.63704 1
0.27618 0.287397 1.63206 1
0.111684 -0.250973 1.64697 1
0.0835272 -0.315212 1.64767 1
0.272016 0.289477 1.66195 1
0.114526 -0.438868 1.66752 1
0.624568 -0.227867 1.50071 1
0.0261842 -0.342865 1.68009 1
0.0916441 -0.38723 1.67393 1
0.0191157 -0.245597 1.6843 1
0.0248059 -0.343626 1.68384 1
0.129947 -0.454355 1.67213 1
0.403161 -0.170952 1.6517 1
0.105287 -0.701763 1.66144 1
0.372515 -0.374003 1.63425 1
0.37429 -0.379809 1.63332 1
0.131834 -0.446961 1.656 1
0.0222834 -0.482502 1.69281 1
0.050611 -0.469996 1.69055 1
0.262481 0.269138 1.68275 1
0.0921344 -0.378572 1.69044 1
-0.019677 -0.298945 1.70087 1
0.348868 0.276382 1.4752 1
0.452372 0.0209993 1.46134 1
0.19827 0.748213 1.57282 1
-0.00897263 -0.297967 1.62858 1
0.372499 0.134532 1.60151 1
0.376479 0.178765 1.56375 1
0.336988 0.118379 1.58026 1
0.256877 0.692704 1.52857 1
0.487801 0.300159 0.712444 1
0.539928 0.192662 0.602325 1
0.598273 -0.0444284 0.998177 1
0.576539 0.0374765 0.847062 1
0.486772 -0.102617 0.791652 1
0.597223 0.0634263 0.84587 1
0.457827 0.258026 1.32673 1
0.694259 -0.143518 0.995627 1
0.0234544 0.504711 1.88809 1
0.227394 -0.0464918 1.88096 1
-0.122952 0.538712 1.91371 1
-0.0836003 0.486847 1.90383 1
0.00722275 0.575951 1.89709 1
0.230208 -0.0444779 1.88614 1
-0.0165094 0.507876 1.8998 1
0.0278008 0.451201 1.89455 1
0.189892 -0.0836325 1.88949 1
0.0402913 0.539838 1.89458 1
0.0367813 0.358354 1.89554 1
-0.210819 0.554693 1.94224 1
0.195222 -0.0498654 1.89475 1
-0.238507 0.601503 1.95938 1
0.117155 0.393808 1.89579 1
-0.0171361 0.487544 1.9103 1
0.208339 -0.0728645 1.89839 1
0.227345 -0.0469515 1.89784 1
-0.00468693 0.444739 1.9087 1
-0.156729 0.56288 1.93832 1
0.106661 0.402779 1.90026 1
0.51417 -0.466865 1.76676 1
0.0870255 0.427286 1.90244 1
0.475904 -0.317691 1.87246 1
0.0325052 0.359725 1.90842 1
-0.00499115 0.447345 1.91309 1
-0.0512624 0.502624 1.92103 1
-0.153852 0.557612 1.94263 1
0.071909 0.0600466 1.99428 1
-0.203858 0.614027 1.9648 1
0.0109981 0.361829 1.91684 1
0.527676 -0.284375 1.83762 1
-0.00642451 0.4491 1.9206 1
0.1037 0.442698 1.91138 1
-0.0979402 0.496204 1.93714 1
0.324826 -0.773479 1.78929 1
0.106377 0.451533 1.91398 1
0.514373 -0.296657 1.85592 1
-0.117805 0.511658 1.94499 1
0.488743 -0.60286 1.75256 1
0.118201 0.39943 1.91688 1
-0.121359 0.512489 1.94785 1
-0.0812854 0.473315 1.94093 1
0.157401 -0.127895 1.92328 1
0.0312334 0.362001 1.92781 1
0.204415 -0.0476588 1.92408 1
0.328661 -0.767845 1.79866 1
0.0944238 0.405789 1.92472 1
0.0864217 0.428773 1.92724 1
0.0319852 0.401391 1.93328 1
-0.022012 0.494963 1.94203 1
0.810768 -0.207563 0.907666 0
0.760747 -0.403642 0.951609 0
0.114198 0.2475 1.93662 1
-0.096937 0.501314 1.95763 1
0.130625 -0.140055 1.9365 1
-0.405772 0.671919 2.06393 1
0.152428 0.26575 1.93555 1
-0.0248794 0.497043 1.95008 1
-0.0237342 0.503873 1.95131 1
-0.236071 0.610089 2.00158 1
-0.145089 0.873979 2.0166 1
-0.026659 0.511746 1.95616 1
0.148983 0.261067 1.94295 1
0.137106 -0.0559634 1.94584 1
0.150606 0.265353 1.94391 1
-0.027554 0.500461 1.96086 1
-0.032642 0.499541 1.96236 1
-0.0303447 0.507126 1.96447 1
-0.202323 0.561068 1.99862 1
0.195961 -0.0592999 1.95376 1
0.324137 -0.799257 1.82637 1
0.14893 0.260796 1.958 1
0.150451 0.266274 1.95915 1
0.325948 -0.801632 1.82782 1
0.026355 0.389487 1.97092 1
0.327074 -0.804674 1.83466 1
0.148881 0.222169 1.97104 1
-0.109705 -0.568102 1.93673 1
-0.0887486 -0.563197 2.03192 1
-0.26957 0.620896 2.04714 1
-0.034189 0.32479 1.98714 1
0.0761731 0.070575 2.17359 1
0.329066 -0.810059 1.84676 1
0.145066 0.224067 1.98776 1
0.796934 -0.477977 1.31218 0
0.0663146 0.294167 2.00386 1
0.1495 0.160268 2.00291 1
0.142314 0.228279 2.00704 1
0.0848324 -0.193596 2.00882 1
0.14599 0.218827 2.01521 1
0.033149 0.394306 2.02045 1
-0.227423 0.957477 2.13749 1
0.138376 0.271074 2.02015 1
0.141001 0.200812 2.02895 1
0.102312 0.196369 2.03076 1
0.0863748 0.291034 2.03266 1
0.118069 0.229736 2.03519 1
-0.0553134 -0.485674 1.89334 1
0.12002 0.230399 2.04155 1
0.0690361 0.252106 2.04789 1
-0.046742 0.406671 2.05757 1
0.0239922 0.281337 2.05536 1
0.0751002 0.447342 2.06997 1
0.327133 -0.848738 1.93543 1
-0.0541194 0.414718 2.09839 1
0.0666332 -0.0538358 2.24686 1
0.329767 -0.868714 1.98496 1
-0.0567839 0.432284 2.16973 1
0.0638358 -0.213215 2.20836 1
-0.270712 0.688597 2.40474 1
1.00306 -0.272173 1.81375 1
-0.245355 0.761949 2.60629 1
-0.241355 0.580868 2.57509 1
-0.867598 1.09747 3.3605 1
-0.901646 1.059 3.32313 1
-0.883836 1.09547 3.38538 1
-1.01548 -0.0114166 3.51045 0
-0.251173 -0.410009 4.43019 0
-2.04586 -0.0183267 6.77354 0
0.356066 0.0917196 1.52416 1
0.36069 -0.131793 1.52376 1
0.584879 -0.214129 1.40229 1
0.538556 0.213806 0.625571 1
0.349082 0.0678198 1.49992 1
0.610161 -0.197339 1.33965 1
0.58353 -0.190413 1.23843 1
0.359637 0.285007 1.49672 1
0.362675 0.088931 1.5147 1
0.578883 -0.209427 1.40406 1
0.658656 -0.169697 1.03422 1
0.58943 -0.146571 1.1831 1
0.431389 0.334583 1.3144 1
0.65735 -0.182207 1.06559 1
0.463586 0.185607 1.27024 1
0.628707 -0.200136 1.11239 1
0.544503 0.185067 0.624106 1
0.36199 0.276792 1.581 1
0.205254 0.749005 1.56443 1
0.221375 0.0396416 1.61883 1
0.413282 0.0558182 1.45239 1
0.583216 -0.187945 1.33874 1
0.493921 0.406798 1.173 1
0.582277 -0.117237 1.16081 1
0.255994 0.0390939 1.50347 1
0.331153 0.552956 1.43164 1
-1.25334 1.00581 2.18461 1
0.467248 0.203282 1.24128 1
0.480271 0.452431 1.10508 1
-1.28369 1.03484 2.21129 1
0.435207 0.521692 1.12846 1
0.49533 0.290173 0.756941 1
0.596147 -0.0943876 1.10629 1
0.581236 -0.134718 1.15858 1
0.503429 0.415382 1.161 1
0.605645 -0.105361 1.05386 1
0.400243 0.170048 1.55352 1
0.337144 0.10789 1.5743 1
0.00167411 -0.313831 1.59538 1
0.598696 -0.028668 0.998724 1
0.498282 0.407657 1.14914 1
0.60056 -0.0699977 0.978203 1
0.583639 0.0738055 0.867712 1
0.600242 -0.0662846 0.978998 1
0.239102 0.681812 1.54581 1
0.118178 -0.242671 1.60499 1
0.338902 0.11518 1.59041 1
0.684093 -0.119906 0.934764 1
0.633764 -0.186829 1.08982 1
0.578082 -0.139196 1.14672 1
-0.686668 0.833719 1.60709 1
0.125855 0.176305 0.534768 1
0.164054 0.299663 1.81473 1
0.174758 0.329634 1.81377 1
0.210702 0.122301 1.81323 1
0.738209 -0.370182 0.892255 0
-0.090811 0.622767 1.85485 1
-0.216725 0.612816 1.88322 1
0.107099 0.559682 1.81792 1
0.21818 0.133266 1.83894 1
0.0795274 0.525217 1.82539 1
0.166868 0.331272 1.8223 1
0.172124 0.326492 1.82511 1
0.070884 -0.744784 1.81142 1
0.263503 -0.00503267 1.82914 1
0.16209 0.299158 1.83081 1
0.19893 0.146487 1.83478 1
0.0673395 0.53149 1.83759 1
0.0567726 0.506471 1.84002 1
-0.0412726 -0.400856 1.86402 1
0.0685836 -0.74885 1.82131 1
-0.0680502 -0.551542 1.85572 1
0.245417 0.140277 1.87548 1
0.0799751 0.529546 1.84063 1
0.792884 -0.155914 0.889145 0
0.787277 -0.184606 0.89947 0
0.0812867 0.521934 1.84154 1
0.787882 -0.158823 0.886273 0
0.137338 0.420594 1.84022 1
0.0873014 0.524178 1.84352 1
0.225493 0.152744 1.84359 1
-0.30346 0.645981 1.93962 1
0.074926 0.0193042 1.90064 1
-0.187549 0.601948 1.90393 1
-0.19121 0.603519 1.90609 1
0.0442018 0.555057 1.86151 1
0.135021 0.424766 1.85381 1
0.00782524 0.587119 1.87061 1
0.795417 -0.180749 0.919402 0
0.794974 -0.177864 0.91533 0
0.198863 0.150977 1.86028 1
0.0690601 -0.758789 1.84239 1
0.752695 -0.421294 1.00033 0
-0.13974 0.518875 1.8932 1
0.0422519 0.529803 1.86712 1
0.243399 0.141167 1.87859 1
-0.137355 0.518107 1.89556 1
0.486202 -0.276669 1.7896 1
0.0894161 0.0269392 1.86998 1
0.443201 -0.639471 1.71227 1
0.106713 0.447101 1.86603 1
0.791311 -0.200145 0.91037 0
0.14562 0.712603 1.84565 1
-0.145655 0.544632 1.90362 1
-0.0932615 -0.57185 1.87683 1
0.132006 0.433807 1.86494 1
0.0929479 0.436539 1.86968 1
0.0993057 0.464444 1.87028 1
0.324256 -0.749355 1.7512 1
0.1156 0.442994 1.86987 1
-0.127613 0.54237 1.907 1
0.793321 -0.189924 0.907142 0
0.801268 -0.17205 0.927547 0
0.446919 -0.639003 1.72044 1
0.108289 0.429886 1.87569 1
0.751378 -0.39628 0.939846 0
0.0921799 -0.380691 1.69227 1
0.298388 0.172296 1.67326 1
0.285183 0.197765 1.69111 1
0.223483 0.391765 1.68664 1
0.0933363 -0.430703 1.67336 1
0.229346 0.289546 1.69514 1
0.271019 0.0973241 1.70161 1
0.18696 0.540156 1.68538 1
0.0076099 -0.24056 1.71022 1
0.0226012 -0.360827 1.70899 1
0.0845218 -0.38772 1.70422 1
0.314509 0.140668 1.70031 1
0.210489 0.617423 1.67503 1
0.103481 0.669185 1.7018 1
0.271328 0.282701 1.69884 1
0.266407 0.260593 1.70205 1
0.28362 0.187601 1.70472 1
0.0148204 -0.259388 1.71821 1
0.584728 -0.189109 1.33996 1
0.450968 0.0207598 1.45067 1
0.39738 0.554327 1.22594 1
0.476646 0.449891 1.10321 1
0.327953 0.505514 1.40116 1
0.588454 -0.0883371 1.08584 1
